# Generated by Automapki software.
0.656842 0.280793 -2.343586
0.654447 0.283401 -2.339745
0.647792 0.284116 -2.330088
0.649885 0.274402 -2.336249
0.653990 0.275389 -2.341545
0.874051 0.344363 -2.491104
0.885907 0.334809 -2.491570
0.892299 0.338605 -2.492446
0.892223 0.326488 -2.492649
0.886270 0.322138 -2.492630
0.892064 0.314476 -2.492690
0.898213 0.324685 -2.492916
0.897995 0.315485 -2.492761
0.897972 0.300567 -2.493145
0.891890 0.302484 -2.492701
0.891675 0.296650 -2.492455
0.897760 0.294728 -2.492907
0.897781 0.288594 -2.493125
0.891848 0.284219 -2.493144
0.888589 0.297417 -2.492637
0.885364 0.285827 -2.493534
0.886127 0.279574 -2.493580
0.880370 0.274973 -2.493946
0.874303 0.277075 -2.493523
0.868275 0.266512 -2.493538
0.873880 0.259090 -2.493227
0.880191 0.269095 -2.493770
0.877890 0.258127 -2.492925
0.871736 0.253685 -2.493196
0.879582 0.249391 -2.493169
0.874044 0.246165 -2.493913
0.885350 0.250026 -2.492939
0.874145 0.240435 -2.494273
0.868168 0.236115 -2.494207
0.856123 0.227588 -2.493899
0.855998 0.221640 -2.493831
0.862192 0.225685 -2.494320
0.878660 0.239365 -2.493902
0.885476 0.243798 -2.493287
0.885878 0.237144 -2.494322
0.879751 0.233014 -2.493963
0.892453 0.234602 -2.495731
0.891666 0.241705 -2.494017
0.891824 0.248236 -2.492915
0.885278 0.253176 -2.492708
0.897134 0.252441 -2.492923
0.897556 0.246136 -2.493913
0.898613 0.238457 -2.496619
0.903904 0.250016 -2.494645
0.903819 0.259782 -2.494258
0.897332 0.273142 -2.492707
0.893853 0.259845 -2.492642
0.883718 0.262573 -2.492824
0.885866 0.267692 -2.493421
0.891382 0.268440 -2.492705
0.891634 0.279328 -2.492873
0.886121 0.273475 -2.493743
0.904058 0.280632 -2.494118
0.909662 0.277742 -2.496148
0.913222 0.282222 -2.497230
0.925578 0.276893 -2.500968
0.922569 0.284044 -2.500384
0.911272 0.289184 -2.496435
0.904392 0.291817 -2.494437
0.904684 0.302851 -2.494679
0.904798 0.322420 -2.493773
0.898559 0.330354 -2.493416
0.940376 0.307746 -2.506628
0.777215 0.367702 -2.462538
0.912879 0.372638 -2.497118
0.921658 0.375219 -2.499084
0.920095 0.382353 -2.497735
0.912567 0.364447 -2.496756
0.843820 0.320870 -2.490169
0.850242 0.317281 -2.491315
0.856496 0.313073 -2.492158
0.866806 0.321637 -2.492433
0.868962 0.308386 -2.493652
0.878125 0.311790 -2.493775
0.872960 0.326079 -2.492162
0.880846 0.311009 -2.493823
0.880717 0.305066 -2.493747
0.875720 0.288543 -2.493471
0.868598 0.283236 -2.493677
0.862847 0.285921 -2.493845
0.868891 0.290156 -2.494041
0.874573 0.298035 -2.493438
0.862774 0.298980 -2.493330
0.862900 0.291959 -2.493774
0.856620 0.288023 -2.493115
0.856703 0.300129 -2.492927
0.856463 0.282995 -2.492959
0.837444 0.294645 -2.489968
0.825499 0.300204 -2.486154
0.843917 0.316966 -2.490469
0.850415 0.308415 -2.491902
0.753414 0.363160 -2.448911
0.639731 0.260953 -2.332732
0.647276 0.254658 -2.351816
0.644105 0.245451 -2.360998
0.637276 0.236486 -2.358684
0.640088 0.243999 -2.353646
0.789857 0.292895 -2.472616
0.781535 0.291059 -2.468927
0.770145 0.273095 -2.463118
0.761837 0.259700 -2.458691
0.776773 0.251674 -2.466131
0.778177 0.244547 -2.467552
0.787279 0.238615 -2.474277
0.789799 0.236652 -2.476773
0.792371 0.241148 -2.478369
0.796477 0.244963 -2.480465
0.803211 0.255033 -2.481819
0.810048 0.262918 -2.483429
0.816758 0.260367 -2.485100
0.823712 0.268675 -2.486925
0.809991 0.272720 -2.483039
0.830615 0.276802 -2.488657
0.830650 0.266939 -2.489007
0.843374 0.268936 -2.490547
0.850817 0.266248 -2.491767
0.841527 0.257320 -2.490736
0.830534 0.256537 -2.489083
0.843264 0.248935 -2.491171
0.826793 0.262690 -2.488227
0.802821 0.263637 -2.480823
0.791185 0.267020 -2.475456
0.792978 0.259888 -2.476674
0.788365 0.262529 -2.473989
0.787026 0.269467 -2.472905
0.783970 0.253528 -2.470406
0.778076 0.264703 -2.467149
0.782434 0.272295 -2.469838
0.778319 0.280815 -2.467153
0.785663 0.246397 -2.471676
0.790136 0.255397 -2.475219
0.791383 0.248273 -2.476721
0.795781 0.251950 -2.478928
0.786392 0.282483 -2.471314
0.793485 0.278625 -2.475040
0.786642 0.276060 -2.471978
0.560314 0.165716 -2.338686
0.562881 0.168221 -2.338995
0.804070 0.228161 -2.484239
0.810319 0.233935 -2.484783
0.804176 0.222677 -2.484600
0.810092 0.220969 -2.484721
0.812269 0.214384 -2.484645
0.816772 0.224400 -2.486159
0.796930 0.201645 -2.482579
0.803039 0.199692 -2.483079
0.796967 0.195491 -2.482827
0.803381 0.193810 -2.482620
0.796690 0.188343 -2.482501
0.808326 0.192675 -2.482143
0.814202 0.191249 -2.482182
0.825373 0.192866 -2.484284
0.835178 0.206580 -2.488152
0.835931 0.194670 -2.486807
0.839407 0.187512 -2.487148
0.847262 0.184176 -2.489424
0.853363 0.182233 -2.489907
0.858727 0.175116 -2.489126
0.846530 0.178996 -2.488167
0.826862 0.186552 -2.484049
0.820166 0.183141 -2.482580
0.820337 0.186611 -2.482808
0.827287 0.209015 -2.486997
0.790004 0.180996 -2.481162
0.787055 0.175921 -2.479383
0.787773 0.187549 -2.479793
0.781571 0.177363 -2.476367
0.780850 0.184757 -2.474770
0.786314 0.194676 -2.478401
0.789977 0.190885 -2.480826
0.794404 0.196517 -2.482210
0.773673 0.190947 -2.468927
0.775968 0.176697 -2.472046
0.776914 0.169577 -2.473705
0.770035 0.167719 -2.469265
0.768035 0.181965 -2.465993
0.762234 0.172984 -2.463142
0.762078 0.186008 -2.461273
0.762227 0.198839 -2.459614
0.756331 0.189861 -2.456815
0.752146 0.201599 -2.453048
0.744345 0.197756 -2.447793
0.743380 0.206752 -2.447358
0.737849 0.195891 -2.443153
0.731341 0.182388 -2.437735
0.741892 0.181620 -2.445352
0.732029 0.172660 -2.437837
0.722998 0.176023 -2.431111
0.722643 0.187667 -2.432080
0.740421 0.158364 -2.444551
0.747330 0.171861 -2.449759
0.749971 0.157606 -2.452698
0.752362 0.182405 -2.454015
0.759862 0.168487 -2.461442
0.757643 0.182730 -2.458293
0.746157 0.190623 -2.449002
0.717785 0.201951 -2.430306
0.731285 0.205673 -2.439322
0.735883 0.214671 -2.442799
0.722239 0.210952 -2.433858
0.713229 0.229778 -2.429461
0.694037 0.226816 -2.418001
0.698990 0.212525 -2.419735
0.792286 0.203655 -2.481161
0.810661 0.158779 -2.476484
0.813553 0.163270 -2.477914
0.819050 0.156081 -2.477201
0.826832 0.153393 -2.478235
0.821080 0.145024 -2.474149
0.815860 0.151956 -2.475215
0.808391 0.154280 -2.474731
0.807613 0.144404 -2.470885
0.813564 0.142651 -2.471076
0.819918 0.140389 -2.472052
0.828297 0.137198 -2.473751
0.834094 0.140110 -2.476705
0.832920 0.135490 -2.474585
0.840271 0.138072 -2.477334
0.839034 0.133532 -2.475091
0.845958 0.136654 -2.477008
0.843562 0.127475 -2.472676
0.850928 0.130037 -2.475456
0.856242 0.122985 -2.474576
0.861765 0.126404 -2.476675
0.871904 0.139142 -2.481607
0.862453 0.120902 -2.475275
0.855695 0.112895 -2.471030
0.860567 0.111079 -2.471939
0.847096 0.110464 -2.468667
0.833746 0.115803 -2.465456
0.821402 0.119868 -2.464211
0.813649 0.117322 -2.461614
0.817965 0.126325 -2.465237
0.808963 0.124053 -2.462782
0.809864 0.129018 -2.464370
0.804438 0.130106 -2.465205
0.805651 0.134676 -2.467402
0.803359 0.125366 -2.463271
0.800450 0.135479 -2.468677
0.801131 0.140723 -2.469832
0.806628 0.139545 -2.469136
0.812283 0.138167 -2.468748
0.817156 0.131675 -2.467003
0.823714 0.129153 -2.468381
0.836248 0.124848 -2.469996
0.837576 0.129272 -2.472416
0.848334 0.117231 -2.470848
0.834952 0.120383 -2.467637
0.822481 0.124608 -2.466146
0.802922 0.150667 -2.472984
0.796653 0.146716 -2.472348
0.795917 0.141542 -2.471085
0.790806 0.142230 -2.472537
0.785514 0.143149 -2.473634
0.795398 0.152513 -2.473477
0.797963 0.157269 -2.474559
0.918147 0.204588 -2.505247
0.922776 0.201946 -2.507924
0.915023 0.200101 -2.503939
0.913597 0.206858 -2.503262
0.913347 0.197411 -2.503054
0.906604 0.197718 -2.501385
0.901448 0.193814 -2.500041
0.894826 0.196485 -2.498403
-0.206153 0.194903 -2.024385
-0.200484 0.199613 -2.023849
-0.199059 0.197487 -2.015363
-0.193576 0.202432 -2.014465
-0.188097 0.200956 -2.002461
-0.175080 0.209989 -1.993342
-0.179933 0.203998 -1.991944
-0.170119 0.210961 -1.984666
-0.171488 0.202735 -1.977885
-0.165055 0.212584 -1.978667
-0.164031 0.204859 -1.969574
-0.161624 0.214023 -1.973929
-0.163506 0.216729 -1.981519
-0.156925 0.219963 -1.971496
-0.158163 0.215422 -1.969253
-0.155095 0.217321 -1.963805
-0.151204 0.224285 -1.959791
-0.150550 0.220956 -1.954110
-0.145843 0.229063 -1.947384
-0.144681 0.233697 -1.949481
-0.149999 0.228865 -1.961972
-0.155566 0.224347 -1.973978
-0.158954 0.221220 -1.978845
-0.161709 0.220559 -1.984857
-0.156572 0.225944 -1.983280
-0.151392 0.230951 -1.970519
-0.148580 0.233175 -1.964570
-0.143349 0.238117 -1.951909
-0.141479 0.235426 -1.944295
-0.138551 0.243931 -1.949668
-0.141840 0.242311 -1.954684
-0.136596 0.247562 -1.953315
-0.132842 0.248592 -1.949209
-0.134644 0.244766 -1.945863
-0.126633 0.252948 -1.949075
-0.124757 0.256347 -1.953222
-0.122977 0.253772 -1.945431
-0.124727 0.249882 -1.942186
-0.119195 0.254767 -1.941380
-0.123881 0.242381 -1.932746
-0.118539 0.247506 -1.931570
-0.119969 0.243211 -1.928949
-0.116289 0.248869 -1.927632
-0.115809 0.253396 -1.930319
-0.114214 0.255949 -1.924389
-0.113187 0.246866 -1.917980
-0.112339 0.253959 -1.915385
-0.110830 0.248988 -1.912483
-0.111899 0.256743 -1.910208
-0.113381 0.258105 -1.918604
-0.114823 0.263064 -1.922553
-0.115515 0.265036 -1.930940
-0.115763 0.257929 -1.933232
-0.117259 0.251991 -1.933898
-0.116810 0.259906 -1.941803
-0.115571 0.262460 -1.936068
-0.114740 0.266981 -1.938572
-0.115751 0.269573 -1.934000
-0.117286 0.272168 -1.929710
-0.116794 0.269399 -1.923010
-0.118304 0.272793 -1.917125
-0.116158 0.268100 -1.912987
-0.117574 0.273020 -1.910130
-0.121208 0.279948 -1.916476
-0.122075 0.283506 -1.912470
-0.123268 0.285910 -1.921392
-0.118743 0.274762 -1.925380
-0.122154 0.286593 -1.934788
-0.126060 0.293621 -1.927815
-0.123795 0.287092 -1.915672
-0.129093 0.300772 -1.927243
-0.122517 0.289828 -1.945277
-0.120372 0.283009 -1.938310
-0.114769 0.271515 -1.941523
-0.115743 0.264424 -1.944184
-0.117738 0.259027 -1.944054
-0.119082 0.261053 -1.952694
-0.122470 0.259559 -1.957517
-0.116958 0.264469 -1.956672
-0.120428 0.263079 -1.961333
-0.116893 0.268364 -1.960835
-0.115895 0.269228 -1.958575
-0.115078 0.270909 -1.954799
-0.116264 0.274475 -1.957716
-0.117994 0.272915 -1.964345
-0.119010 0.267389 -1.963931
-0.120770 0.270380 -1.970891
-0.122320 0.265869 -1.968763
-0.125563 0.264121 -1.974008
-0.127731 0.260760 -1.969945
-0.124237 0.262119 -1.965331
-0.126480 0.258854 -1.961121
-0.132457 0.254533 -1.961055
-0.134924 0.254142 -1.967613
-0.130793 0.258997 -1.975400
-0.126585 0.264127 -1.983326
-0.123600 0.267742 -1.977670
-0.120529 0.272510 -1.972148
-0.119879 0.276513 -1.969701
-0.120238 0.284587 -1.966299
-0.120048 0.279436 -1.976388
-0.122131 0.293683 -1.973158
-0.124895 0.298869 -1.964420
-0.121809 0.289755 -1.956938
-0.127261 0.304053 -1.955465
-0.129278 0.311571 -1.965515
-0.134390 0.319313 -1.955485
-0.129707 0.309233 -1.946561
-0.125324 0.298566 -1.950920
-0.119983 0.285194 -1.953050
-0.116901 0.278043 -1.953597
-0.118031 0.280631 -1.949096
-0.116072 0.276068 -1.945139
-0.114541 0.268940 -1.946493
-0.115556 0.266383 -1.952112
-0.114846 0.273478 -1.949589
-0.128703 0.306397 -1.944211
-0.133491 0.314439 -1.938345
-0.134583 0.315254 -1.932676
-0.126422 0.297920 -1.937553
-0.130538 0.305327 -1.930932
-0.130399 0.304644 -1.924494
-0.128138 0.298796 -1.918719
-0.126324 0.294904 -1.915270
-0.127367 0.301143 -1.913090
-0.130567 0.306319 -1.918079
-0.133516 0.312397 -1.923524
-0.136308 0.319042 -1.929257
-0.134619 0.317425 -1.922457
-0.131964 0.313681 -1.915186
-0.137753 0.323838 -1.926347
-0.138875 0.329811 -1.924021
-0.141917 0.332234 -1.940670
-0.138358 0.325050 -1.947707
-0.137286 0.327481 -1.962257
-0.126780 0.307964 -1.971276
-0.122864 0.302762 -1.979414
-0.117551 0.306600 -1.992706
-0.118825 0.297552 -1.987497
-0.112351 0.301378 -2.000174
-0.114900 0.292350 -1.995630
-0.108260 0.297165 -2.006258
-0.103625 0.305171 -2.011679
-0.102386 0.290936 -2.015348
-0.104347 0.287377 -2.014046
-0.097803 0.285724 -2.023138
-0.100347 0.281776 -2.021882
-0.093684 0.280513 -2.031180
-0.099977 0.271541 -2.028587
-0.103593 0.276744 -2.020283
-0.107330 0.281944 -2.012052
-0.111095 0.287149 -2.003826
-0.117452 0.283320 -1.991087
-0.118395 0.285576 -1.987144
-0.120455 0.275971 -1.983467
-0.119779 0.281272 -1.982133
-0.119629 0.288497 -1.982043
-0.119131 0.294204 -1.985485
-0.121629 0.272354 -1.979365
-0.120598 0.274300 -1.986853
-0.122766 0.269799 -1.985047
-0.122516 0.268760 -1.991001
-0.126743 0.262753 -1.989273
-0.129202 0.260828 -1.982527
-0.137315 0.252239 -1.974359
-0.140642 0.248009 -1.966565
-0.138088 0.249773 -1.961669
-0.140114 0.246232 -1.957883
-0.142794 0.243844 -1.964087
-0.146898 0.237150 -1.967684
-0.145002 0.240856 -1.971215
-0.150442 0.233945 -1.975978
-0.152561 0.231404 -1.982172
-0.149342 0.235890 -1.983431
-0.153805 0.229732 -1.988481
-0.159627 0.224030 -1.988750
-0.157172 0.227026 -1.993376
-0.166260 0.220861 -1.998674
-0.160441 0.225381 -1.998431
-0.154502 0.229753 -1.998420
-0.148117 0.235256 -1.995918
-0.151723 0.232016 -1.992409
-0.146918 0.237801 -1.990184
-0.143658 0.239508 -1.996391
-0.144386 0.237162 -2.001999
-0.150590 0.232722 -2.002296
-0.157748 0.228078 -2.003520
-0.163598 0.225811 -2.011229
-0.154673 0.230290 -2.009357
-0.158083 0.228825 -2.014133
-0.150395 0.232108 -2.015310
-0.158948 0.227978 -2.023777
-0.165114 0.225218 -2.025144
-0.159083 0.227090 -2.030026
-0.168688 0.223033 -2.039067
-0.171194 0.222293 -2.034281
-0.169030 0.223321 -2.019149
-0.170631 0.221382 -2.011957
-0.178834 0.210477 -2.002334
-0.171823 0.216016 -1.999418
-0.167466 0.215456 -1.986220
-0.191415 0.205803 -2.018513
-0.180249 0.212460 -2.011097
-0.181230 0.214436 -2.019634
-0.174237 0.219718 -2.017236
-0.174608 0.220511 -2.027781
-0.180507 0.216381 -2.027293
-0.178115 0.218308 -2.034073
-0.177534 0.218755 -2.044775
-0.170327 0.221517 -2.047247
-0.173859 0.220207 -2.051784
-0.168149 0.221655 -2.051422
-0.165716 0.221786 -2.056084
-0.169754 0.221116 -2.059634
-0.167128 0.222020 -2.064647
-0.174131 0.220875 -2.062521
-0.178085 0.219302 -2.054980
-0.181441 0.217251 -2.048600
-0.184951 0.214627 -2.041940
-0.187135 0.212917 -2.037800
-0.186404 0.211936 -2.027430
-0.194794 0.204299 -2.023351
-0.198320 0.202979 -2.027905
-0.204242 0.198588 -2.027946
-0.210282 0.194348 -2.027757
-0.211838 0.190213 -2.024890
-0.207872 0.190973 -2.021201
-0.200711 0.193472 -2.012311
-0.193326 0.195686 -2.003861
-0.198478 0.190321 -2.005407
-0.186062 0.198056 -1.995172
-0.187433 0.193685 -1.992666
-0.182194 0.199499 -1.990186
-0.183647 0.194986 -1.988007
-0.175110 0.197435 -1.978458
-0.161381 0.201179 -1.963488
-0.160353 0.205984 -1.965322
-0.156855 0.207338 -1.960715
-0.156040 0.212412 -1.962133
-0.153532 0.210652 -1.955716
-0.147398 0.218819 -1.944695
-0.146772 0.224133 -1.945743
-0.143598 0.225897 -1.940503
-0.142731 0.230907 -1.942021
-0.138851 0.231777 -1.938163
-0.137607 0.236306 -1.940421
-0.130692 0.233012 -1.931224
-0.125355 0.238142 -1.930040
-0.118125 0.234448 -1.921460
-0.121274 0.238757 -1.926575
-0.116812 0.242462 -1.923749
-0.116518 0.239806 -1.921879
-0.113805 0.240866 -1.918286
-0.114107 0.235505 -1.917860
-0.110239 0.236028 -1.913990
-0.110271 0.242619 -1.913738
-0.126717 0.241920 -1.935220
-0.136188 0.240616 -1.943019
-0.110356 0.232310 -1.913872
-0.114646 0.229718 -1.916993
-0.118881 0.229298 -1.920158
-0.131760 0.228257 -1.929312
-0.135917 0.227737 -1.932631
-0.139903 0.227001 -1.936282
-0.140600 0.221778 -1.935096
-0.136740 0.222673 -1.931198
-0.110916 0.218567 -1.913192
-0.106445 0.224796 -1.910311
-0.106667 0.212863 -1.910228
-0.111250 0.212882 -1.912714
-0.116359 0.207463 -1.914346
-0.117275 0.196410 -1.912906
-0.106898 0.207050 -1.909952
-0.102052 0.206696 -1.907983
-0.121433 0.201999 -1.916046
-0.121951 0.194041 -1.915280
-0.125909 0.201883 -1.918741
-0.126241 0.195303 -1.918292
-0.130211 0.197716 -1.921885
-0.126111 0.189926 -1.918697
-0.133677 0.200612 -1.925534
-0.130175 0.201503 -1.921844
-0.129545 0.210091 -1.922805
-0.133577 0.212281 -1.926286
-0.137545 0.211479 -1.929975
-0.144636 0.214999 -1.938825
-0.144176 0.220523 -1.939548
-0.148223 0.207651 -1.943433
-0.151431 0.199823 -1.948781
-0.154149 0.203588 -1.954736
-0.157458 0.202315 -1.959080
-0.154853 0.195923 -1.953606
-0.162995 0.191011 -1.960683
-0.170683 0.189181 -1.968539
-0.167425 0.184731 -1.963640
-0.155633 0.183133 -1.952476
-0.155147 0.192641 -1.953135
-0.151571 0.193895 -1.948683
-0.148088 0.186880 -1.944289
-0.148395 0.201762 -1.943272
-0.144891 0.209215 -1.938502
-0.141267 0.210410 -1.934142
-0.137542 0.199263 -1.930332
-0.141120 0.191905 -1.934956
-0.137170 0.186070 -1.931425
-0.143490 0.191076 -1.937900
-0.144864 0.196969 -1.938906
-0.176139 0.178092 -1.969671
-0.171483 0.184086 -1.967152
-0.180027 0.177232 -1.973514
-0.180656 0.171923 -1.972459
-0.168483 0.173859 -1.961923
-0.190339 0.174380 -1.984837
-0.197454 0.167382 -1.990699
-0.198742 0.172013 -1.994150
-0.202432 0.170903 -1.998379
-0.201578 0.175927 -1.999873
-0.197017 0.182042 -1.997170
-0.186665 0.180177 -1.983251
-0.189481 0.184067 -1.989013
-0.182174 0.186381 -1.980409
-0.184948 0.190216 -1.986256
-0.177428 0.192260 -1.978068
-0.192199 0.187831 -1.994968
-0.199731 0.185802 -2.003133
-0.203303 0.184542 -2.007593
-0.209346 0.186732 -2.018495
-0.210614 0.182233 -2.016190
-0.204351 0.179763 -2.005721
-0.210055 0.168989 -2.006366
-0.212800 0.172788 -2.012267
-0.215660 0.176733 -2.017945
-0.217578 0.166949 -2.014546
-0.215510 0.162503 -2.010298
-0.208169 0.154066 -1.999133
-0.200091 0.161510 -1.991862
-0.188621 0.164334 -1.979954
-0.201532 0.155803 -1.992040
-0.197523 0.145723 -1.985963
-0.193396 0.152387 -1.982412
-0.219843 0.145393 -2.010819
-0.215107 0.157390 -2.008284
-0.219026 0.156570 -2.012065
-0.222419 0.161190 -2.016702
-0.223053 0.155885 -2.015639
-0.227151 0.161399 -2.018895
-0.220829 0.171388 -2.019460
-0.218884 0.181137 -2.022913
-0.217753 0.185812 -2.024948
-0.216477 0.190302 -2.027268
-0.226465 0.191385 -2.030628
-0.227773 0.186934 -2.028246
-0.231585 0.192083 -2.032065
-0.238155 0.188087 -2.031683
-0.241506 0.193081 -2.035556
-0.242795 0.188606 -2.033212
-0.247969 0.189374 -2.034542
-0.249135 0.184745 -2.032438
-0.259869 0.186772 -2.034340
-0.261134 0.182267 -2.032043
-0.264882 0.187336 -2.035985
-0.271191 0.183435 -2.035272
-0.269741 0.187704 -2.037931
-0.275840 0.183539 -2.037627
-0.272444 0.178914 -2.032998
-0.263411 0.172938 -2.027942
-0.258064 0.171949 -2.026953
-0.250195 0.179981 -2.030542
-0.254370 0.160842 -2.023081
-0.245985 0.174327 -2.027501
-0.248974 0.159793 -2.022184
-0.241910 0.168844 -2.024199
-0.237867 0.163401 -2.020836
-0.229904 0.177421 -2.024431
-0.234338 0.162785 -2.020111
-0.224742 0.176667 -2.023079
-0.233865 0.182759 -2.027957
-0.238686 0.158331 -2.019410
-0.257083 0.145958 -2.018304
-0.261017 0.157371 -2.021705
-0.265451 0.163308 -2.024305
-0.262073 0.152601 -2.019817
-0.264963 0.137943 -2.014692
-0.269543 0.144065 -2.017006
-0.271607 0.134466 -2.013322
-0.275765 0.140055 -2.016463
-0.276679 0.135105 -2.014852
-0.272497 0.129487 -2.011758
-0.282759 0.130914 -2.014586
-0.287794 0.131508 -2.016185
-0.291395 0.117749 -2.009672
-0.294950 0.122572 -2.013992
-0.297479 0.113563 -2.009399
-0.299564 0.122632 -2.016417
-0.305355 0.118076 -2.016713
-0.303988 0.122451 -2.019211
-0.309914 0.118066 -2.019246
-0.306742 0.113727 -2.014178
-0.298839 0.109178 -2.006916
-0.295453 0.104569 -2.002264
-0.300364 0.105003 -2.004110
-0.303480 0.109272 -2.009286
-0.305163 0.105297 -2.006172
-0.308263 0.109546 -2.011379
-0.315464 0.106774 -2.008923
-0.313481 0.110370 -2.012623
-0.311597 0.114091 -2.016132
-0.314840 0.118520 -2.021061
-0.316898 0.114040 -2.017241
-0.320966 0.114389 -2.020702
-0.319999 0.110280 -2.016392
-0.319817 0.106504 -2.011856
-0.321062 0.101974 -2.009598
-0.324591 0.100660 -2.014143
-0.323208 0.105014 -2.016671
-0.326280 0.107802 -2.024755
-0.326618 0.103550 -2.021447
-0.330325 0.102460 -2.025646
-0.328848 0.106695 -2.028359
-0.327559 0.111170 -2.030703
-0.325461 0.116857 -2.030201
-0.329587 0.114061 -2.038007
-0.330919 0.109641 -2.035579
-0.334909 0.108911 -2.039222
-0.336509 0.104830 -2.036269
-0.340721 0.104380 -2.039480
-0.342712 0.100795 -2.035764
-0.338180 0.100840 -2.033178
-0.334107 0.101465 -2.029697
-0.335991 0.097745 -2.026190
-0.340368 0.097505 -2.029076
-0.337812 0.095609 -2.022755
-0.332091 0.098590 -2.022369
-0.328309 0.099585 -2.018317
-0.330197 0.095869 -2.014802
-0.325790 0.096766 -2.010600
-0.317127 0.102774 -2.005847
-0.318597 0.098529 -2.003149
-0.312477 0.102670 -2.003492
-0.314349 0.098934 -2.000007
-0.310418 0.097287 -1.996320
-0.306204 0.095753 -1.993171
-0.300709 0.100924 -2.000465
-0.311592 0.095120 -1.994129
-0.308909 0.091400 -1.988105
-0.313448 0.091365 -1.990675
-0.317553 0.090779 -1.994094
-0.315021 0.087249 -1.987777
-0.321505 0.089999 -1.997814
-0.324985 0.082193 -1.991362
-0.327442 0.085628 -1.997826
-0.336056 0.078542 -1.992779
-0.334172 0.082262 -1.996287
-0.340295 0.078126 -1.995936
-0.341714 0.073817 -1.993339
-0.348718 0.072480 -1.999841
-0.343176 0.069561 -1.990656
-0.352974 0.064296 -1.994565
-0.356267 0.065957 -1.999477
-0.359192 0.060279 -1.994028
-0.361796 0.063900 -2.000208
-0.364075 0.060678 -1.995929
-0.365659 0.065563 -2.004026
-0.371226 0.061787 -1.997673
-0.370041 0.066491 -2.006869
-0.364325 0.067424 -2.006533
-0.361141 0.071807 -2.012515
-0.357823 0.071081 -2.007625
-0.359798 0.067475 -2.003939
-0.353697 0.071641 -2.004244
-0.351936 0.075517 -2.007513
-0.344294 0.077406 -1.999564
-0.338656 0.082156 -1.998966
-0.332005 0.085622 -2.000350
-0.336634 0.085702 -2.002743
-0.329852 0.089004 -2.004383
-0.325621 0.089429 -2.001210
-0.317205 0.094676 -1.998100
-0.323958 0.093429 -2.004286
-0.332128 0.092209 -2.011201
-0.334296 0.088848 -2.007138
-0.336545 0.092018 -2.014012
-0.334247 0.095214 -2.018329
-0.341080 0.091978 -2.016590
-0.338895 0.088887 -2.009594
-0.343288 0.088667 -2.012450
-0.347325 0.087997 -2.016000
-0.345331 0.091577 -2.019723
-0.342997 0.094728 -2.024111
-0.349204 0.090697 -2.023598
-0.347162 0.094218 -2.027414
-0.351003 0.093298 -2.031350
-0.344883 0.097439 -2.031694
-0.347991 0.099057 -2.036963
-0.351296 0.100099 -2.041870
-0.357072 0.095524 -2.042198
-0.353303 0.103334 -2.049206
-0.359128 0.098449 -2.049449
-0.362144 0.094124 -2.047762
-0.368027 0.092045 -2.055116
-0.373533 0.087075 -2.054091
-0.375423 0.089845 -2.063543
-0.367572 0.098128 -2.066643
-0.361212 0.104967 -2.067820
-0.367170 0.103818 -2.078978
-0.356064 0.111556 -2.069454
-0.356914 0.108181 -2.064695
-0.351627 0.113376 -2.063411
-0.349529 0.110395 -2.056245
-0.349404 0.103809 -2.045393
-0.345130 0.104179 -2.042305
-0.338904 0.108186 -2.042857
-0.333277 0.112951 -2.042236
-0.329145 0.116740 -2.038778
-0.331958 0.117386 -2.044641
-0.329815 0.127946 -2.046379
-0.333201 0.125425 -2.053233
-0.332068 0.130060 -2.055345
-0.329277 0.132472 -2.049035
-0.328321 0.136374 -2.051074
-0.330056 0.139724 -2.058928
-0.325743 0.146153 -2.055739
-0.323569 0.143078 -2.048720
-0.327276 0.129453 -2.041998
-0.322530 0.135332 -2.039658
-0.319894 0.144207 -2.044460
-0.315465 0.144383 -2.041673
-0.319661 0.131378 -2.033995
-0.324905 0.126129 -2.035365
-0.325497 0.123181 -2.034315
-0.321017 0.126989 -2.031521
-0.316336 0.126844 -2.029228
-0.311375 0.126346 -2.027483
-0.309787 0.130440 -2.030412
-0.305489 0.130781 -2.027371
-0.308342 0.122181 -2.022144
-0.318078 0.122943 -2.025998
-0.322309 0.122518 -2.029170
-0.323471 0.117884 -2.027074
-0.319662 0.118844 -2.023076
-0.297105 0.131731 -2.020872
-0.291527 0.136556 -2.020158
-0.285746 0.141127 -2.019838
-0.283576 0.150591 -2.023730
-0.289530 0.146241 -2.023711
-0.286300 0.160469 -2.029499
-0.280579 0.165115 -2.029063
-0.270700 0.163292 -2.025514
-0.272678 0.154463 -2.021974
-0.279504 0.169860 -2.030990
-0.283956 0.169714 -2.033731
-0.289121 0.164364 -2.035254
-0.290405 0.159884 -2.032918
-0.291550 0.167764 -2.041772
-0.296838 0.162569 -2.043056
-0.299280 0.153450 -2.038632
-0.302203 0.157474 -2.044186
-0.304693 0.148414 -2.039669
-0.308022 0.152954 -2.044429
-0.309208 0.148349 -2.042286
-0.311879 0.139519 -2.037415
-0.308471 0.134880 -2.032809
-0.300091 0.135836 -2.026302
-0.294813 0.141041 -2.025003
-0.292773 0.150669 -2.028641
-0.297791 0.145135 -2.030449
-0.313078 0.153573 -2.045990
-0.317385 0.153242 -2.049016
-0.321091 0.152153 -2.053214
-0.313670 0.166857 -2.055752
-0.316443 0.170691 -2.061599
-0.321118 0.164722 -2.064079
-0.325289 0.158113 -2.067546
-0.333016 0.137690 -2.064584
-0.335388 0.128481 -2.060298
-0.336387 0.136176 -2.069438
-0.338968 0.127231 -2.064743
-0.340264 0.135301 -2.073304
-0.345665 0.130251 -2.074365
-0.350059 0.117496 -2.066302
-0.349514 0.125059 -2.074850
-0.353453 0.116051 -2.071030
-0.354110 0.122551 -2.082345
-0.358661 0.113553 -2.078844
-0.363886 0.111059 -2.086657
-0.357999 0.120037 -2.089461
-0.350287 0.131561 -2.086226
-0.354247 0.126668 -2.091837
-0.347899 0.138021 -2.095944
-0.343301 0.145057 -2.091395
-0.342558 0.147008 -2.099033
-0.345145 0.141903 -2.110560
-0.351601 0.132874 -2.108014
-0.346630 0.138869 -2.117380
-0.339763 0.148170 -2.119011
-0.343199 0.143066 -2.123842
-0.341384 0.145765 -2.124661
-0.343357 0.143223 -2.130779
-0.345991 0.138383 -2.129900
-0.348155 0.135340 -2.137113
-0.346098 0.138841 -2.140960
-0.350923 0.133384 -2.154416
-0.346721 0.139952 -2.151011
-0.350377 0.135293 -2.159989
-0.355596 0.127823 -2.154060
-0.360976 0.122334 -2.158002
-0.366981 0.118372 -2.169152
-0.372607 0.113284 -2.158504
-0.366633 0.117287 -2.147292
-0.361071 0.121809 -2.135279
-0.366630 0.116636 -2.124762
-0.378115 0.107341 -2.120856
-0.385771 0.103542 -2.133526
-0.390818 0.101674 -2.148733
-0.384948 0.105132 -2.157617
-0.378936 0.109731 -2.169021
-0.373456 0.115003 -2.179384
-0.362010 0.124289 -2.178520
-0.357816 0.131191 -2.186369
-0.361125 0.129399 -2.191737
-0.368575 0.121036 -2.188574
-0.364223 0.127738 -2.196732
-0.360128 0.134763 -2.204387
-0.354103 0.138701 -2.193276
-0.348992 0.143428 -2.181107
-0.347616 0.147308 -2.182917
-0.342846 0.157552 -2.173589
-0.346010 0.152234 -2.185857
-0.350505 0.146357 -2.199960
-0.357123 0.139886 -2.210006
-0.351740 0.148567 -2.220085
-0.348778 0.151267 -2.213110
-0.346591 0.153614 -2.207261
-0.345029 0.156360 -2.200967
-0.340177 0.165354 -2.204312
-0.339200 0.168034 -2.198469
-0.342783 0.160359 -2.191816
-0.338756 0.170476 -2.193392
-0.335003 0.179488 -2.197309
-0.335745 0.178986 -2.190206
-0.337059 0.175600 -2.182319
-0.332703 0.189135 -2.188859
-0.332071 0.191698 -2.183440
-0.330166 0.198775 -2.180294
-0.325457 0.209733 -2.191739
-0.324901 0.212296 -2.186359
-0.323347 0.216807 -2.188487
-0.322619 0.217069 -2.195039
-0.318682 0.230338 -2.194865
-0.319740 0.228397 -2.187381
-0.322661 0.219374 -2.183030
-0.324876 0.212278 -2.179566
-0.327077 0.205839 -2.176522
-0.322279 0.212162 -2.173275
-0.323465 0.207557 -2.171132
-0.316185 0.209907 -2.162474
-0.314988 0.214496 -2.164639
-0.312720 0.211301 -2.157805
-0.307843 0.217015 -2.155719
-0.309092 0.212491 -2.153453
-0.304449 0.215584 -2.150994
-0.302868 0.222605 -2.153825
-0.299775 0.218366 -2.148603
-0.296963 0.233124 -2.153574
-0.292838 0.233684 -2.150193
-0.284246 0.234370 -2.144103
-0.287990 0.239433 -2.148052
-0.283514 0.239549 -2.145359
-0.280841 0.229736 -2.139489
-0.274361 0.239525 -2.140363
-0.270511 0.234327 -2.136622
-0.265853 0.234213 -2.134282
-0.255408 0.238659 -2.131638
-0.261948 0.228945 -2.130649
-0.256239 0.233605 -2.130190
-0.250641 0.238405 -2.129515
-0.251523 0.233416 -2.127966
-0.245679 0.237906 -2.127769
-0.247224 0.233756 -2.124924
-0.241389 0.238256 -2.124712
-0.241094 0.235550 -2.117998
-0.237560 0.239191 -2.120754
-0.240708 0.243501 -2.125868
-0.245349 0.243595 -2.128238
-0.250145 0.243884 -2.130308
-0.259420 0.244063 -2.135064
-0.269003 0.244631 -2.139219
-0.278451 0.245029 -2.143635
-0.283192 0.245248 -2.145813
-0.287634 0.251196 -2.148397
-0.282785 0.256945 -2.146257
-0.287296 0.256874 -2.148881
-0.285625 0.273076 -2.151623
-0.281271 0.273347 -2.148690
-0.280444 0.278407 -2.150131
-0.276039 0.278612 -2.147298
-0.272098 0.273298 -2.143733
-0.266796 0.278474 -2.142481
-0.267335 0.273049 -2.141602
-0.261838 0.277980 -2.140727
-0.261142 0.283204 -2.141913
-0.250232 0.287060 -2.140179
-0.252314 0.271378 -2.136636
-0.245900 0.281253 -2.137379
-0.245176 0.286441 -2.138619
-0.249468 0.292200 -2.141497
-0.253608 0.298120 -2.144662
-0.259381 0.293188 -2.145004
-0.265953 0.283513 -2.143952
-0.279551 0.283381 -2.151703
-0.283975 0.283200 -2.154497
-0.288435 0.283065 -2.157222
-0.289068 0.277682 -2.156316
-0.293154 0.277151 -2.159617
-0.289765 0.272536 -2.154973
-0.296266 0.250560 -2.154410
-0.291547 0.256474 -2.152015
-0.292046 0.251000 -2.151215
-0.296462 0.244702 -2.154204
-0.292347 0.239168 -2.150978
-0.296472 0.238608 -2.154359
-0.300405 0.243912 -2.157939
-0.304425 0.237112 -2.161698
-0.304222 0.242962 -2.161921
-0.303868 0.248620 -2.162436
-0.300253 0.249825 -2.158061
-0.306553 0.258449 -2.168283
-0.299068 0.260538 -2.160025
-0.297664 0.270971 -2.162421
-0.297061 0.276316 -2.163422
-0.296635 0.287987 -2.163905
-0.292538 0.288583 -2.160471
-0.282696 0.293794 -2.156647
-0.273610 0.293855 -2.151520
-0.274318 0.288645 -2.150311
-0.268146 0.298825 -2.150583
-0.276453 0.303882 -2.157058
-0.267402 0.303989 -2.151862
-0.261918 0.308934 -2.150964
-0.257225 0.308775 -2.148693
-0.258606 0.298312 -2.146344
-0.252165 0.308151 -2.147141
-0.251299 0.313161 -2.148659
-0.245885 0.312087 -2.147801
-0.247286 0.304158 -2.145339
-0.240745 0.310986 -2.146416
-0.244014 0.321931 -2.151107
-0.236593 0.315736 -2.147369
-0.233158 0.325858 -2.149265
-0.238156 0.326402 -2.150941
-0.243136 0.326926 -2.152648
-0.255334 0.318594 -2.152038
-0.259965 0.318673 -2.154432
-0.275425 0.308687 -2.158892
-0.285755 0.304096 -2.161760
-0.284762 0.308945 -2.163524
-0.289081 0.308630 -2.166527
-0.290125 0.303845 -2.164662
-0.294001 0.302971 -2.168529
-0.295060 0.298206 -2.166633
-0.291865 0.293837 -2.161611
-0.287365 0.293923 -2.158963
-0.295922 0.293192 -2.165123
-0.299388 0.291798 -2.169791
-0.299202 0.286900 -2.167470
-0.300474 0.280959 -2.168020
-0.303148 0.283580 -2.174093
-0.304349 0.273976 -2.172065
-0.306210 0.272795 -2.175429
-0.309145 0.262053 -2.174484
-0.308454 0.270256 -2.181688
-0.312519 0.258673 -2.183032
-0.310217 0.267706 -2.187706
-0.311328 0.265151 -2.193374
-0.314705 0.251600 -2.186324
-0.314891 0.249031 -2.191510
-0.315011 0.247071 -2.183547
-0.313082 0.254148 -2.180389
-0.313239 0.249616 -2.177534
-0.310778 0.251909 -2.171641
-0.300791 0.275256 -2.167574
-0.307187 0.253144 -2.167219
-0.307917 0.241857 -2.166142
-0.308140 0.236033 -2.165881
-0.311087 0.240088 -2.171389
-0.313146 0.233442 -2.173765
-0.314032 0.238034 -2.177076
-0.314736 0.232819 -2.175874
-0.316875 0.235850 -2.182963
-0.314723 0.242533 -2.180460
-0.313694 0.243712 -2.177560
-0.311065 0.246166 -2.171257
-0.316405 0.239986 -2.186426
-0.315774 0.244510 -2.189034
-0.316998 0.237423 -2.191824
-0.318285 0.232909 -2.189559
-0.319834 0.223708 -2.177635
-0.321247 0.216961 -2.175117
-0.315646 0.227865 -2.174271
-0.310333 0.220490 -2.162121
-0.312359 0.228897 -2.170419
-0.309383 0.225395 -2.163802
-0.300981 0.232429 -2.157162
-0.304869 0.231569 -2.161005
-0.308553 0.230449 -2.165250
-0.317990 0.231155 -2.180959
-0.315637 0.239359 -2.199151
-0.315369 0.236784 -2.204101
-0.316429 0.229694 -2.206806
-0.313233 0.238714 -2.211014
-0.311386 0.233537 -2.220239
-0.308318 0.242558 -2.224513
-0.306785 0.237391 -2.233893
-0.309659 0.228368 -2.229518
-0.309411 0.225792 -2.234478
-0.311039 0.221507 -2.232859
-0.309716 0.223220 -2.239737
-0.306784 0.234819 -2.238982
-0.305712 0.239337 -2.241360
-0.304444 0.246424 -2.238546
-0.305506 0.251583 -2.228921
-0.303552 0.253842 -2.237268
-0.302780 0.260610 -2.233374
-0.300483 0.269642 -2.238049
-0.311393 0.250325 -2.210838
-0.310842 0.257423 -2.208399
-0.306572 0.270960 -2.214983
-0.310165 0.264523 -2.205883
-0.312106 0.252907 -2.206120
-0.311628 0.262583 -2.198620
-0.307745 0.276126 -2.205406
-0.309073 0.274184 -2.198071
-0.306335 0.283210 -2.202518
-0.304782 0.290292 -2.199555
-0.306169 0.288356 -2.192243
-0.305044 0.292873 -2.194593
-0.305305 0.290915 -2.186703
-0.304516 0.295437 -2.189228
-0.304350 0.292619 -2.182806
-0.303420 0.297548 -2.184447
-0.303549 0.293461 -2.180699
-0.299242 0.304147 -2.180996
-0.298510 0.296792 -2.171332
-0.296416 0.309527 -2.180701
-0.291696 0.312265 -2.172683
-0.287891 0.313230 -2.168678
-0.283502 0.313456 -2.165814
-0.278785 0.313266 -2.163590
-0.276071 0.322042 -2.168547
-0.282059 0.317735 -2.168458
-0.286445 0.317505 -2.171329
-0.290116 0.316370 -2.175597
-0.293361 0.314696 -2.180697
-0.288082 0.319901 -2.179398
-0.284111 0.321921 -2.175681
-0.280400 0.321741 -2.171526
-0.274818 0.326561 -2.170820
-0.270776 0.327226 -2.167278
-0.266682 0.327826 -2.163836
-0.263302 0.323223 -2.159176
-0.260328 0.337776 -2.164463
-0.257676 0.327988 -2.158556
-0.255833 0.337867 -2.161808
-0.250104 0.342502 -2.161387
-0.251947 0.332623 -2.158135
-0.241482 0.337044 -2.155530
-0.242478 0.332002 -2.154147
-0.232116 0.336751 -2.150951
-0.239746 0.347058 -2.158573
-0.231459 0.342025 -2.152060
-0.226648 0.341716 -2.150022
-0.220436 0.351846 -2.150372
-0.221648 0.341167 -2.148353
-0.222592 0.330149 -2.146860
-0.216809 0.340823 -2.146369
-0.215739 0.351681 -2.148109
-0.211630 0.342218 -2.144986
-0.210932 0.351377 -2.146063
-0.205928 0.350824 -2.144402
-0.200941 0.347272 -2.142792
-0.190486 0.354726 -2.140082
-0.185398 0.354067 -2.138583
-0.185069 0.359756 -2.139052
-0.179948 0.352949 -2.137794
-0.179490 0.364580 -2.138338
-0.173725 0.363063 -2.138166
-0.176544 0.369855 -2.138187
-0.178903 0.382157 -2.138960
-0.168235 0.380215 -2.136926
-0.165545 0.385864 -2.136174
-0.178609 0.387891 -2.139359
-0.168061 0.392207 -2.136915
-0.162984 0.385455 -2.135572
-0.158009 0.391044 -2.133679
-0.152963 0.396543 -2.131924
-0.148066 0.390465 -2.130215
-0.147864 0.395870 -2.130449
-0.152652 0.402258 -2.132355
-0.156992 0.408076 -2.135140
-0.152078 0.407637 -2.133302
-0.146366 0.412292 -2.132851
-0.141429 0.411823 -2.131059
-0.145614 0.417446 -2.134145
-0.130539 0.421813 -2.129108
-0.136554 0.411434 -2.129144
-0.131830 0.411235 -2.126935
-0.136978 0.405865 -2.128489
-0.128392 0.400453 -2.122563
-0.127897 0.405932 -2.123356
-0.119087 0.406343 -2.117690
-0.127287 0.411265 -2.124372
-0.117575 0.416641 -2.120294
-0.125902 0.421724 -2.126730
-0.129728 0.426892 -2.130518
-0.144410 0.428134 -2.136148
-0.123058 0.436442 -2.131762
-0.124047 0.431588 -2.130005
-0.117159 0.440863 -2.131673
-0.103022 0.440310 -2.124979
-0.110016 0.431171 -2.123103
-0.106439 0.444960 -2.129570
-0.100268 0.449035 -2.130013
-0.114752 0.450027 -2.136028
-0.116033 0.445543 -2.133701
-0.124493 0.450795 -2.139874
-0.125857 0.446416 -2.137385
-0.135546 0.447119 -2.141331
-0.126550 0.459830 -2.146947
-0.113275 0.454262 -2.138742
-0.117271 0.472181 -2.153118
-0.110423 0.462323 -2.143982
-0.105343 0.462214 -2.142454
-0.107001 0.470743 -2.150305
-0.102099 0.470319 -2.148444
-0.097257 0.457436 -2.135548
-0.084554 0.465127 -2.137144
-0.089291 0.452807 -2.128410
-0.076618 0.460539 -2.129945
-0.087792 0.469552 -2.142081
-0.071383 0.468630 -2.134868
-0.068699 0.455971 -2.122715
-0.059225 0.468078 -2.129264
-0.067208 0.472726 -2.136371
-0.053019 0.472108 -2.129776
-0.044681 0.467011 -2.123364
-0.041651 0.475385 -2.128937
-0.038432 0.470986 -2.123961
-0.038179 0.483201 -2.135374
-0.051408 0.476173 -2.132752
-0.065668 0.476880 -2.139207
-0.071861 0.472835 -2.138717
-0.074840 0.476929 -2.144164
-0.077767 0.480959 -2.149711
-0.066923 0.484901 -2.147845
-0.062211 0.484716 -2.145614
-0.049765 0.483868 -2.140436
-0.042892 0.483385 -2.137606
-0.043560 0.490661 -2.147393
-0.038848 0.490477 -2.145162
-0.029813 0.490603 -2.139935
-0.023696 0.493815 -2.140301
-0.016299 0.490840 -2.132022
-0.019924 0.483219 -2.125284
-0.005637 0.482477 -2.118883
-0.005326 0.493115 -2.130451
-0.001201 0.491262 -2.127141
0.008602 0.488226 -2.123480
0.005441 0.492550 -2.128571
0.016101 0.490618 -2.126522
0.012906 0.494987 -2.131544
0.018107 0.494183 -2.130269
0.014881 0.498593 -2.135229
0.020457 0.499059 -2.134637
0.023092 0.493654 -2.128570
0.026604 0.501420 -2.135084
0.034551 0.496817 -2.127908
0.028211 0.505490 -2.138052
0.020217 0.510154 -2.145136
0.015252 0.510658 -2.146874
0.013180 0.506265 -2.143026
0.004762 0.512375 -2.149254
0.006215 0.504105 -2.141002
-0.001075 0.501448 -2.138368
-0.005934 0.501817 -2.140315
-0.012472 0.498206 -2.139153
-0.008885 0.505877 -2.145814
-0.018306 0.506240 -2.150285
-0.021684 0.498304 -2.144033
-0.022825 0.506179 -2.152894
-0.027980 0.494388 -2.143343
-0.014098 0.494951 -2.136127
0.004043 0.500750 -2.136931
-0.035115 0.497962 -2.152108
-0.030635 0.498073 -2.149421
-0.029755 0.509493 -2.162060
-0.021858 0.517490 -2.165703
-0.021040 0.510024 -2.156209
-0.014590 0.513746 -2.157201
-0.001370 0.520682 -2.159807
-0.000345 0.513059 -2.150715
0.003553 0.520334 -2.157985
0.007289 0.527816 -2.164939
0.021861 0.514179 -2.148173
0.028102 0.518165 -2.148756
0.029701 0.509711 -2.140789
0.040155 0.526682 -2.149079
0.043638 0.509413 -2.133702
0.041892 0.518052 -2.141382
0.053063 0.509045 -2.129238
0.056203 0.517280 -2.135028
0.062307 0.508907 -2.124421
0.063887 0.513011 -2.127334
0.068311 0.513192 -2.124540
0.065510 0.504527 -2.119414
0.060797 0.504711 -2.121645
0.058106 0.495907 -2.116735
0.045482 0.500649 -2.126212
0.037589 0.505182 -2.133497
0.047377 0.491820 -2.118824
0.042665 0.492004 -2.121055
0.037837 0.492333 -2.123063
0.024250 0.485760 -2.119739
0.018502 0.485370 -2.120002
0.011552 0.484166 -2.117979
0.009542 0.480606 -2.114225
0.021982 0.481196 -2.115518
0.018697 0.474474 -2.109408
0.023796 0.473800 -2.107933
0.013025 0.463337 -2.098846
0.019992 0.466404 -2.100847
0.033793 0.472707 -2.104588
0.040018 0.464179 -2.094220
0.050351 0.475196 -2.102450
0.037387 0.480368 -2.111264
0.047945 0.481098 -2.108943
0.056157 0.477253 -2.102252
0.058457 0.482928 -2.106502
0.055202 0.487371 -2.111408
0.027489 0.481335 -2.114802
0.066175 0.491148 -2.109798
0.067630 0.495414 -2.112465
0.077629 0.500424 -2.108950
0.070463 0.491503 -2.106733
0.081754 0.500984 -2.105569
0.073152 0.488287 -2.100707
0.083234 0.501357 -2.104016
0.076753 0.488999 -2.096318
0.083451 0.498514 -2.097616
0.080428 0.491086 -2.092030
0.084718 0.499378 -2.095207
0.080789 0.495513 -2.081203
0.075248 0.491678 -2.068029
0.070889 0.487820 -2.054249
0.065560 0.493049 -2.046838
0.063628 0.506679 -2.056655
0.059916 0.502811 -2.042537
0.060496 0.498269 -2.039299
0.057594 0.505417 -2.038658
0.059916 0.491782 -2.028638
0.056396 0.503474 -2.031257
0.058043 0.494382 -2.024525
0.055804 0.501525 -2.023529
0.054500 0.510613 -2.030082
0.053872 0.513194 -2.025320
0.055927 0.499562 -2.015439
0.056421 0.502127 -2.010092
0.054411 0.514124 -2.018892
0.053198 0.520309 -2.023518
0.054748 0.522858 -2.017622
0.055290 0.518317 -2.014402
0.057386 0.520862 -2.008211
0.056495 0.529943 -2.014549
0.059964 0.530706 -2.006513
0.061756 0.520472 -1.998968
0.065568 0.525330 -1.994862
0.064710 0.520311 -1.993359
0.072350 0.528309 -1.985232
0.070755 0.518115 -1.982466
0.073290 0.519272 -1.978781
0.075966 0.529514 -1.980856
0.077557 0.521069 -1.972874
0.081189 0.522254 -1.968529
0.082193 0.527089 -1.970318
0.084927 0.523303 -1.964393
0.087140 0.532713 -1.968370
0.089958 0.528824 -1.962608
0.087148 0.520168 -1.957466
0.095217 0.534053 -1.961269
0.092324 0.525503 -1.955966
0.097761 0.530509 -1.954975
0.098193 0.526620 -1.950523
0.109926 0.532454 -1.944425
0.104202 0.527813 -1.944852
0.114067 0.532994 -1.941075
0.115967 0.536694 -1.944613
0.120372 0.536900 -1.941780
0.122725 0.540026 -1.946206
0.134004 0.536987 -1.934099
0.136578 0.539833 -1.938956
0.140840 0.533793 -1.924747
0.143402 0.536654 -1.929582
0.148300 0.536235 -1.927713
0.146122 0.539315 -1.934724
0.150933 0.533968 -1.921553
0.147697 0.530568 -1.915442
0.133828 0.530780 -1.922661
0.136166 0.533927 -1.927056
0.124913 0.530504 -1.928118
0.127327 0.527124 -1.921570
0.140679 0.527566 -1.913341
0.129796 0.523675 -1.915129
0.122675 0.525800 -1.923960
0.118181 0.522397 -1.924054
0.113060 0.521734 -1.928189
0.114226 0.513828 -1.919373
0.119639 0.518863 -1.918335
0.118229 0.514543 -1.915753
0.113004 0.509269 -1.917161
0.106407 0.512163 -1.926975
0.101482 0.506509 -1.928969
0.098867 0.510144 -1.935124
0.095007 0.509249 -1.939022
0.093207 0.499315 -1.935854
0.096823 0.500519 -1.931479
0.095323 0.494927 -1.931463
0.089945 0.492436 -1.939356
0.088041 0.496998 -1.943285
0.087098 0.501591 -1.946625
0.081480 0.499059 -1.954731
0.086477 0.506089 -1.949973
0.085350 0.511810 -1.954255
0.078341 0.507540 -1.963489
0.077605 0.502366 -1.962226
0.074338 0.505655 -1.969425
0.075440 0.501106 -1.965914
0.070044 0.503148 -1.976752
0.072411 0.509591 -1.974607
0.068660 0.512236 -1.983347
0.079573 0.514419 -1.965655
0.083646 0.518819 -1.962065
0.085970 0.515554 -1.955339
0.089819 0.516464 -1.951418
0.092280 0.513023 -1.944962
0.091335 0.508114 -1.943290
0.096082 0.513993 -1.940948
0.101321 0.519249 -1.939572
0.108991 0.521103 -1.931677
0.110607 0.525163 -1.934660
0.120625 0.530149 -1.931183
0.107298 0.524522 -1.937752
0.098773 0.522798 -1.945859
0.118275 0.533450 -1.937856
0.122608 0.533745 -1.934884
0.082472 0.514200 -1.959946
0.064060 0.515027 -1.992265
0.061111 0.512978 -1.997944
0.058326 0.504670 -2.004010
0.059245 0.493017 -2.002748
0.060484 0.495570 -1.997012
0.060844 0.507209 -1.997599
0.063115 0.497905 -1.990943
0.065453 0.505179 -1.987171
0.066008 0.500024 -1.985156
0.068659 0.496345 -1.979070
0.066090 0.492707 -1.985522
0.062514 0.491007 -1.993018
0.060758 0.488461 -1.999022
0.063611 0.483885 -1.994599
0.066622 0.484616 -1.986777
0.067574 0.488974 -1.982345
0.070358 0.491504 -1.975805
0.071589 0.498591 -1.973011
0.073638 0.494027 -1.969006
0.077146 0.496843 -1.961503
0.078757 0.491988 -1.958312
0.083073 0.494797 -1.950377
0.085172 0.489936 -1.946933
0.089174 0.485343 -1.941910
0.085513 0.482820 -1.948918
0.081600 0.487412 -1.953894
0.082580 0.480292 -1.955536
0.076289 0.482348 -1.966840
0.086799 0.475695 -1.950400
0.093470 0.487850 -1.934582
0.108187 0.503479 -1.919363
0.123933 0.506674 -1.904367
0.121156 0.510514 -1.910207
0.130753 0.516034 -1.905905
0.134190 0.523895 -1.912272
0.143255 0.523982 -1.907108
0.128149 0.519654 -1.912084
0.150176 0.527108 -1.909016
0.073748 0.479814 -1.973254
0.073277 0.475174 -1.977258
0.071068 0.473927 -1.984335
0.070515 0.484396 -1.977875
0.075790 0.489461 -1.964947
-0.132949 0.456808 -1.989740
-0.142370 0.438815 -1.982904
-0.148891 0.420779 -1.974557
-0.152858 0.402703 -1.964877
-0.150904 0.384992 -1.967096
-0.149074 0.374220 -1.971526
-0.150761 0.376703 -1.967541
-0.149257 0.365155 -1.965749
-0.144732 0.350876 -1.967696
-0.143634 0.341792 -1.961251
-0.141259 0.332689 -1.954139
-0.144048 0.337875 -1.945414
-0.144645 0.342426 -1.935144
-0.148261 0.352154 -1.943295
-0.146849 0.357277 -1.932380
-0.145613 0.348935 -1.933100
-0.144016 0.345595 -1.930120
-0.144288 0.352705 -1.928109
-0.146425 0.357710 -1.931290
-0.150821 0.366404 -1.940324
-0.151072 0.364241 -1.944743
-0.151910 0.369645 -1.942980
-0.147231 0.373099 -1.929300
-0.151134 0.380624 -1.936171
-0.147256 0.383187 -1.928963
-0.152976 0.385808 -1.940471
-0.152555 0.378330 -1.941493
-0.154318 0.384591 -1.953892
-0.153256 0.375507 -1.947465
-0.152184 0.370347 -1.957086
-0.150868 0.361261 -1.950527
-0.149856 0.357054 -1.947284
-0.146923 0.346986 -1.952786
-0.148559 0.356078 -1.959512
-0.152575 0.379421 -1.963163
-0.153202 0.398757 -1.946834
-0.153849 0.389732 -1.943459
-0.153012 0.391122 -1.940249
-0.147206 0.393160 -1.928771
-0.148229 0.394792 -1.930352
-0.146592 0.406772 -1.929559
-0.151927 0.403915 -1.938152
-0.152619 0.407060 -1.940544
-0.152929 0.412997 -1.944548
-0.151348 0.431108 -1.955470
-0.151452 0.425855 -1.945236
-0.152151 0.414456 -1.941231
-0.146003 0.418239 -1.930359
-0.149262 0.427158 -1.938321
-0.150594 0.434327 -1.943646
-0.150378 0.436637 -1.943995
-0.148805 0.444051 -1.952271
-0.148886 0.446960 -1.946560
-0.146680 0.456380 -1.950522
-0.146735 0.449173 -1.964812
-0.138355 0.467182 -1.972191
-0.142542 0.462671 -1.961647
-0.143465 0.464520 -1.956458
-0.141485 0.468455 -1.947582
-0.136471 0.477446 -1.950841
-0.135684 0.478447 -1.948428
-0.139515 0.471086 -1.941290
-0.144749 0.459436 -1.943409
-0.146086 0.450389 -1.938233
-0.144163 0.452547 -1.932904
-0.140613 0.464518 -1.931075
-0.141511 0.455464 -1.925670
-0.136935 0.467173 -1.923795
-0.138774 0.457289 -1.920551
-0.139509 0.447403 -1.919425
-0.145149 0.440514 -1.931358
-0.145407 0.429697 -1.931174
-0.140295 0.425787 -1.925184
-0.138334 0.432306 -1.922114
-0.134839 0.439162 -1.916949
-0.138826 0.446357 -1.918398
-0.131866 0.460108 -1.911167
-0.131463 0.462954 -1.911859
-0.131740 0.469534 -1.916263
-0.133983 0.475649 -1.929215
-0.137148 0.473534 -1.935143
-0.131205 0.482511 -1.937918
-0.130216 0.483089 -1.936230
-0.125124 0.482103 -1.923470
-0.127142 0.478474 -1.919702
-0.128734 0.474462 -1.916763
-0.130038 0.470007 -1.914389
-0.125314 0.469808 -1.912181
-0.124140 0.474427 -1.914300
-0.116652 0.476835 -1.917320
-0.122228 0.479458 -1.917825
-0.118658 0.485804 -1.924492
-0.115344 0.481285 -1.919701
-0.113594 0.485175 -1.922947
-0.112866 0.486428 -1.924307
-0.116928 0.488510 -1.927733
-0.121929 0.487217 -1.929453
-0.120084 0.491412 -1.937995
-0.113030 0.497318 -1.946238
-0.110045 0.495545 -1.938481
-0.107927 0.494167 -1.933562
-0.104559 0.498158 -1.939909
-0.110157 0.499531 -1.951687
-0.100267 0.501713 -1.948042
-0.095878 0.500808 -1.945211
-0.093527 0.500498 -1.946128
-0.092093 0.497733 -1.941283
-0.088289 0.501335 -1.948478
-0.090134 0.503486 -1.953900
-0.085407 0.503791 -1.953937
-0.093730 0.505225 -1.960484
-0.082320 0.505988 -1.959797
-0.091476 0.506017 -1.964784
-0.087747 0.506725 -1.971919
-0.097946 0.503434 -1.975003
-0.103739 0.502615 -1.963912
-0.106670 0.501477 -1.958321
-0.110836 0.499120 -1.965279
-0.118297 0.495308 -1.953115
-0.125426 0.489236 -1.945244
-0.129141 0.484649 -1.938247
-0.133962 0.480701 -1.951666
-0.138643 0.472335 -1.962152
-0.138785 0.470807 -1.965255
-0.131927 0.481302 -1.964525
-0.130641 0.484274 -1.957935
-0.129034 0.486403 -1.952839
-0.119832 0.494364 -1.955830
-0.126658 0.486971 -1.965502
-0.123915 0.487968 -1.970735
-0.123245 0.490239 -1.965873
-0.114626 0.496849 -1.965747
-0.112486 0.497274 -1.969841
-0.108914 0.497380 -1.976692
-0.113765 0.494015 -1.976994
-0.120722 0.488303 -1.976852
-0.124157 0.485103 -1.976537
-0.132210 0.476157 -1.974861
-0.134109 0.473558 -1.974149
-0.124482 0.468180 -1.992775
-0.126804 0.475546 -1.982514
-0.112812 0.489618 -1.983318
-0.103815 0.495724 -1.986522
-0.100591 0.497742 -1.986180
-0.092812 0.501904 -1.984897
-0.082376 0.506049 -1.982244
-0.194055 0.221955 -2.058098
-0.187760 0.220460 -2.058941
